ply
format ascii 1.0
comment Created by Open3D
element vertex 1287
property double x
property double y
property double z
property uchar red
property uchar green
property uchar blue
end_header
-0.765379 1.50496 1.84967 156 158 161
-0.787486 1.50716 1.11182 145 148 150
-0.792626 1.51305 1.02945 152 155 158
-0.800173 1.51405 1.13412 65 67 69
-0.773358 1.50271 2.39954 136 138 141
-0.811856 1.5227 1.27613 164 167 168
-0.827436 1.52385 0.854732 161 162 162
-0.827436 1.52385 0.854732 161 162 162
-0.861754 1.52949 0.0346066 107 109 110
-0.868504 1.52762 0.497456 104 105 106
-0.868504 1.52762 0.497456 104 105 106
-0.862513 1.52872 0.697959 102 105 106
-0.884762 1.53155 0.088736 134 138 142
-0.852439 1.52736 1.21637 160 165 166
-0.857308 1.52639 1.17972 147 150 151
-0.873882 1.53057 0.724096 142 145 147
-0.832619 1.52407 2.05719 172 174 176
-0.832619 1.52407 2.05719 172 174 176
-0.856784 1.52806 1.53964 162 168 171
-0.886595 1.53128 0.661743 151 153 154
-0.857902 1.51909 1.65341 99 101 101
-0.848591 1.52432 2.12909 176 178 180
-0.874933 1.53044 1.56681 100 102 102
-0.92389 1.53681 0.176526 128 129 131
-0.863321 1.52505 2.08546 170 172 175
-0.92544 1.53726 0.209909 74 76 77
-0.913651 1.53528 0.651624 77 79 81
-0.925829 1.5337 0.29633 140 143 143
-0.904571 1.53447 1.13052 161 164 166
-0.882329 1.52987 1.82481 178 181 181
-0.906569 1.53092 1.21693 147 150 151
-0.880063 1.53062 2.05015 160 162 165
-0.89049 1.53044 1.76768 170 171 170
-0.936665 1.53391 0.412853 155 158 160
-0.927637 1.53914 0.673972 151 153 155
-0.887726 1.52756 1.94736 169 171 172
-0.913406 1.53111 1.54391 150 152 152
-0.931224 1.53454 1.21937 90 92 93
-0.931224 1.53454 1.21937 90 92 93
-0.953827 1.53395 0.587582 151 153 153
-0.907964 1.53149 1.97207 73 75 77
-0.980977 1.54276 0.0374919 77 79 79
-0.935321 1.53044 1.45585 170 171 169
-0.950901 1.53784 1.01857 82 84 86
-0.952871 1.53581 1.05767 159 161 161
-0.940013 1.53449 1.62904 99 101 102
-0.955364 1.52707 1.23612 149 151 152
-0.976493 1.53908 0.644451 91 92 92
-0.929463 1.53259 1.99577 171 172 174
-0.950381 1.53601 1.65851 165 167 169
-0.950381 1.53601 1.65851 165 167 169
-1.01146 1.54315 0.337644 165 167 169
-0.987626 1.54006 1.04362 150 151 151
-1.01127 1.54471 0.423484 147 149 151
-0.975494 1.53396 1.48621 180 182 183
-0.975494 1.53396 1.48621 180 182 183
-0.998484 1.54228 0.861476 156 157 159
-1.00218 1.54569 0.796763 153 154 154
-1.00218 1.54569 0.796763 153 154 154
-0.987457 1.53998 1.21996 80 84 85
-0.94823 1.53569 2.39992 136 139 142
-0.954344 1.53777 2.2759 180 182 182
-0.992881 1.54014 1.69579 160 163 165
-1.05248 1.53539 0.191384 98 98 98
-0.998979 1.54065 1.66553 169 175 178
-1.04225 1.54154 0.542258 150 151 151
-1.02435 1.54183 1.19783 159 161 162
-1.04044 1.54337 0.923727 152 155 156
-1.02703 1.54078 1.27848 175 177 178
-1.04645 1.54484 0.758636 156 158 158
-1.04337 1.54451 1.13221 109 115 116
-1.07948 1.54299 0.408922 110 112 112
-1.07175 1.53971 0.928628 174 175 176
-1.11097 1.53553 0.0383118 116 116 116
-1.08117 1.535 0.840992 161 167 169
-1.05236 1.54282 1.70856 177 179 181
-1.08164 1.53411 1.095 176 177 177
-1.12385 1.54695 0.0780661 131 132 131
-1.04907 1.54305 2.02781 172 175 176
-1.10244 1.53723 0.852432 169 173 175
-1.08487 1.54116 1.31921 175 179 181
-1.14235 1.53673 0.165436 144 145 146
-1.17169 1.53399 0.0430964 121 122 123
-1.09892 1.53522 1.87477 127 129 130
-1.15757 1.53196 0.629364 164 166 166
-1.18288 1.52826 0.0803012 148 149 149
-1.18288 1.52826 0.0803012 148 149 149
-1.13256 1.53513 1.31904 163 165 164
-1.13352 1.53326 1.58577 159 163 164
-1.11384 1.53674 2.10138 187 191 192
-1.11384 1.53674 2.10138 187 191 192
-1.12097 1.5343 1.94368 179 182 183
-1.12386 1.53689 1.90844 177 181 181
-1.1619 1.53107 1.03503 156 159 160
-1.16546 1.53158 0.965438 161 163 164
-1.1757 1.52673 0.789627 169 170 170
-1.13469 1.53702 1.81639 66 69 71
-1.16053 1.53405 1.43525 92 93 94
-1.16117 1.53023 1.45336 166 167 168
-1.14688 1.53279 1.84356 187 192 196
-1.19628 1.5275 0.761963 62 65 66
-1.16475 1.53154 1.49142 171 172 172
-1.18222 1.5306 1.09448 114 119 123
-1.17412 1.53183 1.34409 105 107 107
-1.20822 1.52619 0.613725 101 103 104
-1.17918 1.53327 1.27568 78 85 88
-1.23222 1.52172 0.383588 89 92 95
-1.22943 1.52249 0.450332 102 103 103
-1.19113 1.52844 1.30258 178 186 189
-1.19113 1.52844 1.30258 178 186 189
-1.17299 1.53285 1.79229 168 170 172
-1.21177 1.52208 1.03879 169 172 173
-1.21177 1.52208 1.03879 169 172 173
-1.241 1.51923 0.499424 155 157 157
-1.26129 1.51782 0.132224 95 97 98
-1.21664 1.52501 1.26848 167 168 169
-1.2726 1.51053 0.250552 95 96 96
-1.2726 1.51053 0.250552 95 96 96
-1.2344 1.51953 1.19403 163 163 163
-1.23401 1.52238 1.27943 125 127 128
-1.23401 1.52238 1.27943 125 127 128
-1.28139 1.51018 0.685885 116 118 119
-1.22775 1.52259 1.81618 165 168 170
-1.30906 1.49723 0.192771 112 114 115
-1.30906 1.49723 0.192771 112 114 115
-1.22254 1.52166 2.19038 132 134 136
-1.2313 1.52142 2.21854 183 185 186
-1.3217 1.48967 0.462606 89 90 90
-1.24332 1.51026 2.11886 180 184 186
-1.23444 1.52161 2.30854 130 133 134
-1.33025 1.49291 0.381062 155 155 156
-1.33025 1.49291 0.381062 155 155 156
-1.33025 1.49291 0.381062 155 155 156
-1.30544 1.49861 0.910113 162 164 164
-1.25783 1.51397 1.97661 183 185 187
-1.33616 1.49008 0.833688 111 112 113
-1.33616 1.49008 0.833688 111 112 113
-1.27624 1.50852 2.36583 184 186 186
-1.31971 1.49861 1.58072 113 114 116
-1.3915 1.47147 0.326547 143 145 146
-1.31328 1.4982 1.86302 106 108 112
-1.53714 0.554094 0.000810055 121 121 120
-1.461 1.44111 0.0282244 98 99 100
-1.41116 1.45912 1.48734 119 120 122
-1.44639 1.44601 0.986503 163 164 164
-1.47447 1.4342 0.576978 87 88 88
-1.38832 1.47486 2.21506 179 182 183
-1.39126 1.47217 2.18326 105 108 109
-1.49994 1.4193 0.306245 147 148 148
-1.42891 1.45377 1.90365 171 174 175
-1.41379 1.46211 2.24839 180 187 189
-1.51822 1.40575 0.540424 154 156 157
-1.4159 1.46022 2.36939 193 198 199
-1.47379 1.4308 1.65069 85 87 87
-1.44713 1.44672 2.11111 185 187 188
-1.44028 1.45016 2.25219 137 140 140
-1.49939 1.41926 1.68937 137 139 140
-1.48446 1.42476 2.26305 191 193 194
-1.50487 1.41324 2.20532 135 138 140
-1.56037 1.37853 1.3968 121 122 122
-1.52617 1.40836 1.91568 174 175 175
-1.51679 1.40836 2.11644 179 184 184
-1.57362 1.37307 1.61786 181 183 182
-1.57362 1.37307 1.61786 181 183 182
-1.58649 1.36026 1.59105 100 102 104
-1.65036 1.31166 1.437 163 165 165
-1.63237 1.3243 1.93077 189 190 190
-1.6952 1.27367 1.99394 178 179 180
1.52291 1.02062 0.547118 43 83 103
0.759157 1.23986 1.45959 83 105 114
0.559131 1.17764 1.3236 65 112 135
0.533433 1.08542 0.674895 108 142 155
0.523672 0.819585 1.83477 89 145 170
0.523672 0.819585 1.83477 89 145 170
-1.31548 2.77901 1.59298 75 128 149
3.18674 -6.58299 -0.158468 127 129 131
-1.02228 2.80594 1.89057 137 140 142
-0.76441 1.5025 1.84765 156 158 161
-0.860814 1.52662 1.65615 111 114 114
-0.88883 1.53696 0.663288 143 146 148
-0.891277 1.53251 1.76826 172 173 173
-0.888868 1.53052 1.94907 168 169 170
-0.915886 1.53689 1.03244 106 108 111
-0.925919 1.53845 0.208957 92 93 96
-0.9309 1.53607 1.99718 169 171 172
-0.947722 1.53436 2.39991 137 140 142
-0.982397 1.5469 0.0408831 76 78 78
-0.975841 1.53413 1.48605 180 181 181
-0.975841 1.53413 1.48605 180 181 181
-1.01236 1.54563 0.338635 166 170 171
-0.999156 1.54116 1.66614 173 178 181
-1.03022 1.54935 1.28292 173 176 176
-1.04437 1.54732 1.13413 110 115 116
-1.08355 1.53969 1.09779 171 173 173
-1.08533 1.54233 1.31904 168 171 173
-0.87789 1.00065 2.59688 180 182 182
-1.08747 1.53613 1.63839 180 187 190
-1.1152 1.53559 1.27249 125 129 129
-1.1152 1.53559 1.27249 125 129 129
-1.11398 1.5371 2.10095 190 193 194
-1.11398 1.5371 2.10095 190 193 194
-1.11986 1.53104 1.94048 180 183 184
-1.14789 1.53288 0.604353 123 125 125
-1.13277 1.53114 1.58469 161 165 167
-1.15806 1.53322 0.628758 163 164 164
-1.16253 1.53309 1.03654 153 156 158
-1.14715 1.5336 1.84405 187 192 196
-1.16583 1.53273 0.966367 164 165 165
-1.16481 1.53171 1.49158 172 173 173
-1.17491 1.53367 1.34478 121 123 123
-1.17891 1.53275 1.27435 96 100 103
-1.17169 1.52904 1.79055 169 170 172
-1.19635 1.52745 0.759867 56 59 60
-1.19238 1.5277 1.05411 99 102 104
-1.20075 1.52045 0.548224 144 146 147
-1.20835 1.52667 0.613184 117 119 119
-1.23267 1.52303 0.383949 93 97 100
-1.24148 1.52061 0.499713 154 155 155
-1.21636 1.52687 1.79008 101 104 105
-1.21636 1.52687 1.79008 101 104 105
-1.23443 1.51959 1.19306 164 164 164
-1.23012 1.52662 1.5124 107 109 109
-1.26229 1.52074 0.133353 91 93 94
-1.27285 1.51132 0.251244 91 91 91
-1.23134 1.52136 2.21783 181 184 185
-1.27935 1.50901 0.0231975 97 98 98
-1.24535 1.51635 2.121 183 189 190
-1.28108 1.50931 0.683936 119 121 123
-1.25831 1.51539 1.97677 191 193 194
-1.2808 1.50627 0.967716 155 156 156
-1.30518 1.49771 0.908372 161 162 163
-1.32528 1.50039 0.468538 86 87 87
-1.33122 1.49597 0.382507 156 157 157
-1.31987 1.49923 1.5815 110 112 114
-1.31369 1.49939 1.86309 107 108 112
-1.36647 1.4762 0.265573 73 74 74
-1.36801 1.48389 0.316713 87 88 89
-1.37654 1.47922 0.292249 158 159 159
-1.33253 1.4966 2.26523 133 136 138
-1.33253 1.4966 2.26523 133 136 138
-1.39261 1.47467 0.328899 138 139 140
-1.39207 1.47292 0.359079 93 94 94
-1.4084 1.46696 0.14194 147 147 148
-1.38834 1.47493 2.21521 179 182 182
-1.3916 1.4731 2.18209 115 118 119
-1.44671 1.4471 0.986676 158 160 160
-1.44671 1.4471 0.986676 158 160 160
-1.44652 1.4464 1.0224 168 169 169
-1.41374 1.46172 2.24727 179 186 189
-1.4158 1.45979 2.36866 191 196 197
-1.42766 1.44929 1.90052 166 170 171
-1.42766 1.44929 1.90052 166 170 171
-1.44105 1.45249 2.25175 130 133 134
-1.49537 1.4192 0.350198 160 163 163
-1.44705 1.44639 2.11104 188 190 190
-1.50004 1.41961 0.30601 151 152 152
-1.47698 1.43212 1.24849 127 128 130
-1.51604 1.41066 0.0734589 143 146 146
-1.45489 1.44096 2.31221 186 188 190
-1.51264 1.41304 0.519746 104 107 109
-1.46284 1.43758 2.2733 143 145 146
-1.46284 1.43758 2.2733 143 145 146
-1.51605 1.40384 0.381944 155 158 159
-1.51605 1.40384 0.381944 155 158 159
-1.51634 1.40004 0.537601 162 165 165
-1.51908 1.4084 0.54023 162 165 165
-1.5037 1.41728 1.23202 120 122 122
-1.5037 1.41728 1.23202 120 122 122
-1.47725 1.42828 2.24481 112 116 118
-1.49964 1.42006 1.68947 130 131 133
-1.49467 1.42228 1.90381 169 172 172
-1.50869 1.41256 1.41074 105 107 109
-1.48488 1.42616 2.26365 191 194 195
-1.55991 1.38345 0.215459 152 153 153
-1.5158 1.40957 2.09928 174 178 179
-1.53891 1.3961 1.71452 180 182 182
-1.59444 1.35742 0.0772144 143 145 146
-1.5351 1.40059 2.10055 131 134 136
-1.60076 1.35675 0.0357097 120 122 122
-1.58617 1.36535 0.790399 163 165 165
-1.58617 1.36535 0.790399 163 165 165
-1.56912 1.37916 1.37733 174 175 174
-1.56244 1.38091 1.66215 112 114 114
-1.56244 1.38091 1.66215 112 114 114
-1.60887 1.35138 0.476995 87 88 88
-1.57422 1.37513 1.61856 191 193 193
-1.60175 1.35376 0.764281 134 135 136
-1.59055 1.36433 1.4183 160 161 161
-1.63281 1.32614 0.0660348 111 114 114
-1.58776 1.36449 1.59228 110 113 114
-1.63789 1.32764 0.385622 169 171 172
-1.59562 1.35714 1.74833 177 179 179
-1.60686 1.35082 1.53036 177 178 179
-1.59844 1.35379 2.38688 187 189 191
-1.59844 1.35379 2.38688 187 189 191
-1.67475 1.29381 0.352421 110 112 112
-1.67963 1.29378 0.262098 99 100 100
-1.63294 1.32624 1.9323 193 194 195
-1.65056 1.31234 1.43792 166 168 169
-1.62435 1.33472 2.33496 195 197 197
-1.68587 1.2852 0.803294 166 167 167
-1.69558 1.27323 0.488579 166 167 167
-1.71543 1.26563 0.0265777 121 122 122
-1.68106 1.28807 1.06243 124 126 126
-1.72197 1.25053 0.0452596 152 153 153
-1.64615 1.31579 2.34641 157 158 158
-1.71953 1.25565 0.20326 88 89 88
-1.66738 1.29835 2.3163 192 194 194
-1.69797 1.27292 1.48507 164 171 174
-1.68479 1.2844 2.01331 139 142 144
-1.73678 1.22478 0.455814 169 171 172
-1.75455 1.20414 0.0360902 143 145 145
-1.75058 1.21623 0.245949 151 151 151
-1.69579 1.2757 1.99486 183 185 186
-1.69909 1.2754 2.20875 123 126 128
-1.70554 1.26899 2.07083 178 180 179
-1.69745 1.27512 2.39447 153 152 150
-1.71996 1.25669 1.78807 169 170 171
-1.70664 1.26695 2.37029 196 196 196
-1.73795 1.23081 1.55068 181 183 183
-1.75738 1.21039 1.47552 168 169 169
-1.80376 1.14331 0.0842812 146 149 149
-1.80403 1.14588 0.247537 150 151 152
-1.74475 1.22526 2.21105 171 172 172
-1.76303 1.19741 1.8234 187 189 189
-1.78118 1.18 1.73644 176 181 183
-1.79793 1.15059 1.70301 95 97 100
-1.87692 1.06844 0.00261721 186 186 186
-1.8164 1.14198 1.69498 168 171 171
-1.82506 1.12354 1.49418 173 178 179
-1.81487 1.13773 1.83515 175 181 185
-1.82816 1.11519 1.57729 173 177 179
-1.81608 1.14303 2.00037 141 143 144
-1.8242 1.12761 1.97007 171 170 171
-1.84392 1.09623 1.4938 94 95 96
-1.84392 1.09623 1.4938 94 95 96
-1.84794 1.09343 1.53042 154 155 155
-1.84341 1.0971 1.81393 165 168 168
-1.91483 0.978262 0.0356333 122 125 124
-1.83764 1.10359 2.29435 185 186 186
-1.91807 0.946635 0.208653 144 146 146
-1.88428 1.01505 1.27482 119 119 119
-1.87048 1.05053 2.39952 124 126 127
-1.88124 1.03006 2.28214 168 169 169
-1.91032 0.973558 1.49392 158 159 160
-1.89205 0.996969 1.99841 174 179 181
-1.90815 0.984824 1.80885 53 54 54
-1.90577 0.973328 2.17383 173 174 175
-1.90577 0.973328 2.17383 173 174 175
-1.90883 0.974192 2.39079 114 115 115
-1.93804 0.897667 2.26017 162 161 161
-3.71623 4.15519 2.92747 114 118 120
-1.86277 0.315816 2.10903 111 111 110
-1.93006 0.272108 1.80358 118 120 122
-1.89585 0.194162 2.29634 125 128 129
1.6829 1.23169 1.20842 56 108 132
0.557116 1.1792 1.32349 67 125 152
-0.33928 0.471516 2.41518 178 181 183
-1.38991 1.47142 2.17959 97 99 100
-1.41766 1.46167 2.36911 195 199 200
-1.43263 1.45439 1.90242 169 173 174
-1.43263 1.45439 1.90242 169 173 174
-1.44046 1.45189 2.24993 131 133 134
-1.44678 1.44715 0.986582 160 161 161
-1.47644 1.4335 1.50961 167 170 171
-1.48711 1.42844 2.265 192 194 195
-1.53483 1.40037 2.10108 130 133 135
-1.56195 1.38041 1.6623 114 116 117
-1.56969 1.37975 1.37753 176 176 176
-1.57518 1.37618 1.61947 188 190 190
-1.58599 1.36518 0.789967 164 166 167
-1.58894 1.36573 1.59208 81 84 86
-1.59132 1.36505 1.41819 153 153 153
-1.59718 1.35877 1.74935 179 181 181
-1.59718 1.35877 1.74935 179 181 181
-1.6007 1.35615 2.38801 193 197 198
-1.60701 1.35097 1.52985 171 173 173
-1.61234 1.34655 1.28266 167 167 167
-1.6354 1.32864 0.0680521 101 103 104
-1.62496 1.33533 2.33445 199 200 201
-1.62614 1.33407 2.14186 107 108 109
-1.6441 1.32129 0.496148 113 114 114
-1.6441 1.32129 0.496148 113 114 114
-1.63513 1.32847 1.93261 194 195 196
-1.64207 1.31646 0.552133 114 115 115
-1.64974 1.31964 2.34891 145 146 146
-1.65335 1.31135 1.49334 174 176 176
-1.67625 1.29008 0.256867 110 111 112
-1.66977 1.30088 2.31693 194 196 196
-1.68219 1.28927 1.06323 120 122 122
-1.69491 1.27848 0.334826 146 147 148
-1.68278 1.29157 2.22464 187 191 192
-1.6967 1.27442 0.489071 163 164 164
-1.70411 1.27348 0.391714 155 156 155
-1.70571 1.26077 0.220195 153 154 154
-1.69949 1.27462 1.4878 165 172 174
-1.69678 1.27679 1.99513 174 175 176
-1.69897 1.27527 2.20838 110 114 116
-1.69764 1.2753 2.39361 153 151 150
-1.7078 1.26579 1.59666 170 173 173
-1.72476 1.25358 0.0486783 153 154 154
-1.70825 1.26865 2.37095 193 193 192
-1.71917 1.2525 1.37954 169 170 170
-1.7176 1.25414 1.78634 167 169 169
-1.72545 1.2473 2.03505 167 168 168
-1.73867 1.22691 0.456103 169 171 172
-1.7294 1.24126 1.67737 168 171 172
-1.72625 1.24502 2.16599 178 181 183
-1.74906 1.22012 0.071178 106 108 109
-1.73073 1.2434 2.27704 106 108 111
-1.73849 1.23133 1.55048 182 184 185
-1.75336 1.21923 0.24874 152 152 152
-1.76265 1.213 0.0434142 149 151 151
-1.74489 1.22542 2.21074 165 166 166
-1.76751 1.20044 0.0254971 110 112 112
-1.7652 1.19914 0.104026 86 88 88
-1.74979 1.21465 1.72512 171 174 175
-1.76812 1.1967 0.0823291 142 144 144
-1.7574 1.21033 1.4751 172 173 173
-1.76097 1.19463 1.39079 175 177 178
-1.76036 1.20554 2.08913 178 181 183
-1.76498 1.19952 1.82407 184 186 186
-1.76031 1.20596 2.32692 131 132 134
-1.78214 1.18098 1.73595 180 185 187
-1.79657 1.16033 0.828674 153 154 156
-1.80592 1.14573 0.085724 155 156 157
-1.80762 1.14989 0.250261 160 162 162
-1.79128 1.16682 2.15634 137 140 140
-1.79128 1.16682 2.15634 137 140 140
-1.8217 1.13455 0.0311934 102 103 103
-1.79305 1.16427 2.3883 191 191 191
-1.80185 1.15501 1.70513 76 77 78
-1.81215 1.14363 1.45139 165 167 168
-1.82556 1.12924 0.484245 69 71 72
-1.82105 1.13095 0.757345 153 154 155
-1.81729 1.132 0.942032 153 154 155
-1.81185 1.14313 1.76848 171 171 170
-1.81542 1.14084 1.69426 165 168 167
-1.81398 1.14105 1.86712 163 164 164
-1.81398 1.14105 1.86712 163 164 164
-1.81506 1.13795 1.83446 178 184 188
-1.81713 1.14416 2.00032 142 144 145
-1.82956 1.1217 0.799184 150 151 151
-1.83299 1.10618 0.188717 143 145 145
-1.83461 1.11148 0.572781 142 145 145
-1.82689 1.1256 1.49439 175 180 181
-1.82368 1.12893 1.79133 162 163 163
-1.83132 1.11745 1.1151 157 157 154
-1.82501 1.1285 1.96956 177 177 178
-1.8399 1.10336 0.805008 92 94 95
-1.83271 1.11292 1.41632 157 158 157
-1.82972 1.11928 1.83234 61 64 67
-1.82972 1.11928 1.83234 61 64 67
-1.8353 1.10929 1.34753 168 169 167
-1.84084 1.10334 1.21192 171 173 175
-1.84534 1.09174 0.736222 165 166 166
-1.833 1.11596 2.17435 167 168 169
-1.84285 1.10224 1.56157 89 92 94
-1.84399 1.09633 1.49328 79 82 83
-1.85725 1.07279 0.335534 50 52 52
-1.84166 1.10521 1.99238 181 182 183
-1.84281 1.09654 1.8107 157 159 161
-1.84709 1.09235 1.52978 156 157 157
-1.83878 1.10487 2.29513 188 188 189
-1.87944 1.07167 0.00338973 186 186 186
-1.84372 1.09974 2.24483 77 77 78
-1.84697 1.0904 1.90528 160 161 163
-1.86132 1.07162 1.1418 165 166 165
-1.84759 1.08704 2.22195 161 161 162
-1.85034 1.08972 2.28709 70 70 72
-1.87049 1.04421 0.29567 89 90 90
-1.85541 1.07651 2.30117 186 188 188
-1.86533 1.06239 1.94259 92 95 98
-1.8777 1.02979 0.667188 151 154 154
-1.87622 1.0361 0.964688 105 106 107
-1.8709 1.03989 1.2982 159 160 159
-1.8693 1.04717 1.57244 98 99 100
-1.87091 1.05467 1.81383 153 155 156
-1.86614 1.05558 2.05889 185 186 186
-1.86517 1.05617 2.1921 175 176 177
-1.86511 1.05439 2.2435 159 159 159
-1.87114 1.044 2.15842 195 197 197
-1.86932 1.0492 2.39796 116 119 120
-1.89319 1.00635 0.514453 138 139 139
-1.88816 1.01379 1.08261 74 73 73
-1.88816 1.01379 1.08261 74 73 73
-1.88606 1.01703 1.27732 130 131 130
-1.89863 0.992686 0.502863 139 140 140
-1.88106 1.02989 2.2824 168 169 168
-1.88906 1.01053 1.79144 156 158 158
-1.88462 1.01904 2.20963 184 186 187
-1.891 1.00848 1.76057 163 166 165
-1.891 1.00848 1.76057 163 166 165
-1.91328 0.969743 0.387172 146 147 149
-1.89961 0.998383 1.71927 165 167 169
-1.89513 1.00578 2.11378 151 153 154
-1.89415 0.999437 2.00029 175 182 184
-1.90195 0.986586 1.5331 149 151 153
-1.90195 0.986586 1.5331 149 151 153
-1.89649 0.994068 1.91652 170 173 173
-1.89649 0.994068 1.91652 170 173 173
-1.90451 0.987048 1.74633 98 100 102
-1.90451 0.987048 1.74633 98 100 102
-1.92211 0.944192 0.358331 140 142 143
-1.90042 0.991529 2.18422 175 177 179
-1.90864 0.978798 1.7758 171 170 167
-1.9208 0.945388 0.712742 148 149 150
-1.91607 0.959025 1.4032 163 163 162
-1.93723 0.924723 0.00914219 185 185 185
-1.89914 0.975582 2.41474 187 187 187
-1.91507 0.959621 1.79215 170 169 168
-1.92766 0.932846 0.814261 54 55 56
-1.91265 0.962677 1.99249 149 153 156
-1.92503 0.940264 1.11616 145 146 146
-1.91369 0.966348 2.15888 176 177 178
-1.93044 0.920918 0.620707 135 137 137
-1.93386 0.908582 0.282069 65 66 66
-1.92344 0.94311 1.75628 156 156 156
-1.94267 0.883059 0.0311814 51 55 60
-1.93933 0.88808 0.259525 140 141 142
-1.94458 0.884397 0.0817851 53 55 56
-1.93303 0.912072 1.2421 129 132 131
-1.91849 0.933741 2.22074 186 185 184
-1.9258 0.939528 2.34986 178 181 182
-1.94137 0.883469 0.670294 141 142 143
-1.92963 0.927344 2.14277 179 180 180
-1.93668 0.896356 1.49369 158 159 159
-1.94738 0.872767 0.949496 150 152 152
-1.94838 0.858915 0.757027 154 156 156
-1.94838 0.858915 0.757027 154 156 156
-1.93263 0.913336 2.37507 176 177 178
-1.93263 0.913336 2.37507 176 177 178
-1.93896 0.90102 1.97371 93 94 94
-1.93908 0.888805 1.71798 159 160 160
-1.95667 0.830229 0.103065 128 131 131
-1.95415 0.857246 0.852518 139 141 141
-1.94018 0.893609 2.10823 171 173 173
-1.93836 0.897936 2.25759 151 151 150
-1.93916 0.896536 2.20567 66 68 69
-1.94303 0.879481 2.10722 174 176 176
-1.94478 0.875529 2.05017 180 182 184
-1.9503 0.860319 1.64703 164 164 163
-1.94431 0.86067 1.86855 165 167 167
-1.95365 0.846859 1.5476 153 153 153
-1.96502 0.810017 0.740678 145 146 146
-1.97088 0.796365 0.711866 103 105 105
-1.97545 0.78718 0.41222 73 75 75
-1.95994 0.834234 1.88739 46 47 46
-1.95994 0.834234 1.88739 46 47 46
-1.96554 0.809762 1.37512 154 155 155
-1.95844 0.825255 2.15538 165 166 167
-1.96462 0.819143 1.95968 162 164 164
-1.96376 0.815159 2.10775 172 173 174
-1.96907 0.720157 0.154499 66 67 68
-1.97065 0.792426 1.66169 152 154 154
-1.97183 0.785617 1.54678 158 159 160
-1.97095 0.762057 1.12025 148 149 151
-1.96037 0.809819 2.36054 163 164 165
-1.96037 0.809819 2.36054 163 164 165
-1.98426 0.720275 0.131242 134 136 137
-1.98023 0.733035 0.539657 46 46 47
-1.99241 0.716018 0.0553864 78 79 80
-1.97937 0.707961 0.249804 143 147 151
-1.97233 0.787387 2.00583 154 155 155
-1.97233 0.787387 2.00583 154 155 155
-1.97831 0.74386 1.29857 153 152 150
-1.97831 0.74386 1.29857 153 152 150
-1.98458 0.689802 0.234961 43 46 50
-1.97289 0.784426 2.29667 166 167 166
-1.97401 0.778591 2.24231 158 159 156
-1.97401 0.778591 2.24231 158 159 156
-1.97708 0.766838 2.0369 161 163 163
-1.99079 0.683176 0.196295 132 135 136
-1.98035 0.735465 1.54427 145 146 147
-1.97575 0.760285 2.27924 51 51 51
-1.97465 0.755553 2.38086 126 128 129
-1.9839 0.714247 1.66683 153 153 153
-1.97867 0.737145 2.2591 155 154 155
-1.99022 0.638738 0.306014 149 152 152
-1.97913 0.719359 2.00264 146 148 149
-1.98785 0.651584 0.639182 124 127 127
-1.98072 0.734737 2.30459 165 166 165
-1.98035 0.722404 2.11581 167 170 170
-1.986 0.687952 1.41155 100 100 100
-1.98524 0.664155 1.04708 153 153 154
-1.98155 0.717892 2.16655 169 172 172
-1.991 0.625715 0.347063 141 142 143
-1.97543 0.699966 2.41518 188 187 186
-1.9875 0.636166 1.06596 138 139 139
-1.99549 0.607419 0.501703 145 146 146
-1.99294 0.59691 0.629908 145 148 149
-1.98916 0.643524 1.61931 142 143 144
-1.98999 0.674628 2.26748 157 158 157
-1.98745 0.625431 1.49665 142 142 141
-1.98313 0.652647 2.376 123 125 126
-1.98507 0.640843 2.16317 146 147 147
-1.99746 0.611856 1.8863 99 101 102
-1.99232 0.571424 1.46262 55 55 55
-1.98968 0.5535 1.4287 134 134 136
-1.98572 0.482317 0.61318 140 142 143
-1.99169 0.541143 1.44831 152 154 156
-1.9836 0.457983 0.536157 147 149 149
-1.97697 0.439796 0.471772 50 51 51
-1.98575 0.515011 2.38377 121 121 121
-1.38446 -0.332293 1.77583 155 158 159
-1.99042 0.488106 2.30351 182 184 185
-1.97863 0.453569 2.36594 158 161 161
-1.97071 0.382542 1.49462 65 65 65
-1.64172 -0.152683 2.30579 133 134 134
-1.68279 -0.136502 2.34503 117 117 118
3.29766 0.4789 -2.78353 114 117 119
-1.58581 1.36486 1.59257 91 94 96
-0.112635 0.886242 -1.06804 187 187 187
-1.68198 1.29127 2.22346 186 190 192
-1.69913 1.27526 0.490171 167 168 168
-1.72601 1.24755 2.03586 179 181 181
-1.72147 1.25331 1.38138 170 171 171
-1.7362 1.22759 2.3201 177 178 179
-1.74351 1.22495 2.20999 170 170 171
-1.74114 1.23227 1.55056 180 182 182
-1.74172 1.22796 0.457097 171 174 174
-1.75126 1.21637 0.431995 57 59 59
-1.76707 1.19667 1.395 166 167 168
-1.79455 1.16483 2.38945 183 183 182
-1.80559 1.15635 1.7066 76 78 80
-1.8161 1.14508 1.45257 161 163 164
-1.81624 1.1384 1.83464 177 182 186
-1.82529 1.12861 1.96884 179 179 180
-1.82697 1.12564 1.4935 173 177 179
-1.82992 1.11937 1.83239 46 48 52
-1.82992 1.11937 1.83239 46 48 52
-1.83356 1.12242 1.58175 178 181 182
-1.84068 1.10556 2.29545 187 187 188
-1.83395 1.11333 1.41761 159 160 160
-1.84235 1.10548 1.99213 175 176 178
-1.83952 1.10287 1.21077 176 178 180
-1.84827 1.089 2.28529 76 76 78
-1.84412 1.09637 1.49292 85 86 88
-1.83919 1.10933 0.326624 145 147 148
-1.84902 1.08758 2.22323 164 165 166
-1.84845 1.09098 1.90549 161 162 164
-1.8409 1.10905 0.193665 142 143 144
-1.84708 1.09238 0.736001 161 161 162
-1.84782 1.09079 0.669961 150 151 151
-1.84782 1.09079 0.669961 150 151 151
-1.85898 1.06602 2.22125 137 138 138
-1.85488 1.07255 1.47421 157 157 157
-1.85111 1.08418 0.355284 168 170 170
-1.85684 1.07833 0.833214 152 154 155
-1.85886 1.0709 1.13855 152 152 150
-1.86342 1.06173 1.94022 121 125 128
-1.86904 1.05759 2.19235 170 172 172
-1.86744 1.05528 2.24468 158 157 157
-1.86768 1.05615 2.05899 180 181 181
-1.86214 1.06 1.36392 104 106 107
-1.86214 1.06 1.36392 104 106 107
-1.86942 1.04925 2.39776 122 125 125
-1.87444 1.04524 2.15944 195 197 197
-1.86848 1.06358 0.0951505 147 149 149
-1.87914 1.03339 2.00022 179 180 180
-1.87844 1.04143 1.063 167 168 167
-1.88177 1.03016 2.28325 170 171 170
-1.87175 1.04469 0.296629 85 86 86
-1.87582 1.03285 0.911643 75 76 77
-1.8871 1.01998 2.21043 187 188 189
-1.88053 1.03097 0.668656 152 155 155
-1.89161 1.01909 1.27944 109 110 110
-1.88878 1.01044 1.79126 166 167 168
-1.89194 1.00826 1.96133 181 183 185
-1.88883 1.01411 1.08305 78 78 77
-1.89268 1.00913 1.76021 165 167 166
-1.89587 1.0001 2.00157 171 180 181
-1.89923 0.991046 2.18303 178 180 181
-1.90454 0.984944 2.02753 168 171 173
-1.90086 0.986161 1.53259 157 159 161
-1.90086 0.986161 1.53259 157 159 161
-1.90551 0.995766 0.513215 138 139 139
-1.90729 0.978289 1.77454 170 168 165
-1.90858 0.97873 1.48072 159 158 157
-1.90582 0.986473 0.211217 144 146 148
-1.91182 0.968747 2.37055 166 167 167
-1.91376 0.966345 2.15472 176 178 179
-1.91269 0.964937 1.73908 157 159 159
-1.91646 0.96427 1.88275 164 166 168
-1.9062 0.967125 0.382764 152 153 154
-1.91929 0.961262 1.79383 173 172 170
-1.91775 0.95965 1.40358 159 159 159
-1.92118 0.94641 1.98727 111 113 113
-1.92434 0.950912 0.898645 154 156 156
-1.9252 0.946269 1.47869 101 102 102
-1.92418 0.943415 1.75649 163 163 163
-1.92418 0.943415 1.75649 163 163 163
-1.92664 0.939887 2.34935 181 184 185
-1.92143 0.945625 0.71295 150 151 152
-1.9301 0.938189 2.22581 180 179 178
-1.92428 0.945044 0.359753 142 144 145
-1.9274 0.939918 0.835148 176 178 179
-1.93067 0.927739 2.14247 176 176 176
-1.93067 0.927739 2.14247 176 176 176
-1.92831 0.927303 1.98512 168 169 169
-1.92831 0.927303 1.98512 168 169 169
-1.92772 0.932887 0.815321 55 56 57
-1.92796 0.923698 2.01315 172 173 174
-1.92896 0.930015 0.743904 145 146 147
-1.93106 0.922181 2.16704 170 172 172
-1.93115 0.924776 0.532867 45 45 45
-1.93467 0.922471 0.623263 140 142 143
-1.93468 0.914132 2.37617 168 170 171
-1.93468 0.914132 2.37617 168 170 171
-1.93042 0.911873 2.31239 100 102 103
-1.93668 0.924507 0.00844241 185 185 185
-1.93392 0.916245 0.310785 140 142 142
-1.9336 0.908562 0.282293 64 65 65
-1.9336 0.908562 0.282293 64 65 65
-1.93899 0.901051 1.97316 94 94 94
-1.93899 0.901051 1.97316 94 94 94
-1.93434 0.901274 0.777931 125 127 128
-1.94042 0.896966 2.20462 38 39 40
-1.94327 0.898912 1.49638 152 154 153
-1.94327 0.898912 1.49638 152 154 153
-1.93906 0.888848 1.71909 167 168 168
-1.93906 0.888848 1.71909 167 168 168
-1.9434 0.893895 0.0506063 80 84 89
-1.9412 0.890954 0.104501 138 140 141
-1.93832 0.888088 0.616504 135 137 138
-1.93987 0.88833 0.261265 136 137 138
-1.94234 0.887032 0.876336 130 131 133
-1.94085 0.887072 0.157263 157 159 159
-1.94276 0.884684 0.562767 141 141 142
-1.94247 0.883914 0.670464 142 142 144
-1.9444 0.87945 2.31773 171 174 175
-1.94427 0.879986 2.10751 178 181 182
-1.94541 0.884735 0.0805218 47 49 50
-1.94444 0.883805 0.0318183 52 57 63
-1.94608 0.876082 2.05031 181 182 184
-1.94458 0.877997 1.03823 156 156 156
-1.94836 0.88021 0.291672 138 140 140
-1.94636 0.872495 0.948541 151 153 153
-1.94866 0.871904 1.28727 148 149 149
-1.94888 0.87238 0.889112 155 157 157
-1.94966 0.862636 2.14902 161 162 163
-1.9502 0.86303 1.87052 167 168 168
-1.94506 0.864849 0.0533376 119 122 123
-1.94901 0.861692 0.392975 87 88 89
-1.94901 0.861692 0.392975 87 88 89
-1.95024 0.86135 0.173601 95 97 98
-1.95024 0.86135 0.173601 95 97 98
-1.94922 0.859239 0.757961 152 154 154
-1.94922 0.859239 0.757961 152 154 154
-1.95497 0.847318 1.54798 155 156 156
-1.95373 0.843137 0.495715 151 152 152
-1.95879 0.833787 1.88618 51 52 51
-1.95879 0.833787 1.88618 51 52 51
-1.95601 0.830627 0.536379 134 136 137
-1.95798 0.830821 0.104128 138 140 140
-1.96 0.830499 0.661854 47 48 48
-1.95965 0.825786 2.15759 168 169 170
-1.96086 0.826601 0.863535 142 144 144
-1.95997 0.823718 2.21943 183 183 184
-1.96063 0.821461 1.86515 152 155 154
-1.95916 0.816911 1.95681 164 166 167
-1.96279 0.814762 2.10725 175 176 176
-1.96519 0.811861 2.36189 159 161 162
-1.96492 0.811349 0.0946733 52 53 53
-1.96615 0.811761 1.07406 165 166 166
-1.96302 0.809979 0.401181 90 92 93
-1.96477 0.810679 1.73058 159 161 161
-1.96491 0.810014 0.74044 150 151 151
-1.96455 0.807958 0.796231 140 142 142
-1.967 0.808312 0.161089 52 54 55
-1.96345 0.805889 1.30494 167 168 167
-1.97084 0.796336 0.709236 95 97 97
-1.97066 0.795087 0.386284 131 133 134
-1.96899 0.786056 2.00404 156 157 157
-1.96899 0.786056 2.00404 156 157 157
-1.97487 0.78524 2.29692 159 159 159
-1.97439 0.780112 0.0787149 76 77 78
-1.97452 0.77882 2.24205 165 165 163
-1.97452 0.77882 2.24205 165 165 163
-1.9752 0.775958 1.09037 149 150 151
-1.97608 0.775674 1.34293 159 158 158
-1.97609 0.776099 1.83364 167 167 168
-1.97609 0.771686 1.78597 172 174 174
-1.98159 0.767749 0.110885 139 141 142
-1.97756 0.76713 0.77924 138 142 144
-1.97756 0.76713 0.77924 138 142 144
-1.97884 0.765354 0.998821 152 153 153
-1.97844 0.767365 2.03901 160 161 162
-1.97939 0.761749 2.28112 62 62 61
-1.97584 0.7561 2.38051 137 139 140
-1.98209 0.746284 1.47469 148 149 149
-1.97785 0.743641 1.29749 151 151 150
-1.97877 0.743482 1.85786 109 110 111
-1.98298 0.74326 2.02827 81 81 81
-1.97911 0.73258 0.539753 51 51 52
-1.97947 0.735064 1.54401 144 145 146
-1.9816 0.738395 2.26057 160 160 160
-1.98035 0.735426 1.57989 101 102 102
-1.98012 0.737123 2.28244 163 163 162
-1.97524 0.722785 0.161318 65 66 66
-1.98235 0.723965 0.50851 135 137 137
-1.98064 0.720104 0.446902 150 152 152
-1.9957 0.721179 0.120773 129 131 132
-1.98647 0.719707 1.02445 65 66 65
-1.98658 0.722402 2.00661 142 144 144
-1.98824 0.714304 0.0503425 87 89 90
-1.98297 0.716714 1.525 82 82 82
-1.98311 0.71854 2.16684 168 170 171
-1.98173 0.716477 1.85768 174 177 178
-1.98328 0.715356 1.58587 155 155 156
-1.98587 0.711775 1.49295 142 141 140
-1.98287 0.709969 1.94359 128 130 131
-1.98474 0.708062 2.21379 167 171 172
-1.98521 0.704274 2.05675 150 153 153
-1.98347 0.702197 1.80663 94 95 96
-1.98236 0.692348 0.384824 140 142 143
-1.98655 0.690594 0.237029 40 42 46
-1.98556 0.695632 1.69532 166 167 167
-1.98711 0.698025 2.19709 82 86 88
-1.9858 0.685965 0.651377 60 62 62
-1.98653 0.688269 1.40948 102 102 102
-1.98556 0.688938 1.63638 162 164 165
-1.98896 0.682432 0.193546 138 141 142
-1.98549 0.687242 1.96756 144 145 147
-1.98583 0.68081 0.799689 146 147 147
-1.98614 0.682622 2.22884 171 174 173
-1.98652 0.6828 2.28337 175 175 173
-1.98873 0.67935 2.06671 98 100 103
-1.99193 0.666904 0.0280374 82 85 86
-1.98574 0.676167 2.03389 159 161 164
-1.98763 0.670379 1.73521 159 160 160
-1.98695 0.667678 1.46968 147 146 145
-1.98741 0.665045 1.04968 161 161 161
-1.98741 0.665045 1.04968 161 161 161
-1.98712 0.663649 1.874 150 151 151
-1.99489 0.654486 0.639402 126 128 129
-1.99489 0.654486 0.639402 126 128 129
-1.98919 0.654051 1.69523 154 155 154
-1.98557 0.653848 2.37229 139 140 141
-1.98954 0.638475 0.303146 150 153 153
-1.99134 0.644445 1.62036 138 139 139
-1.98855 0.642373 2.16584 145 146 147
-1.99306 0.626454 0.347248 139 141 141
-1.99037 0.636064 2.25805 173 174 174
-1.99642 0.62446 0.574211 72 74 74
-1.99221 0.625873 1.3838 139 137 136
-1.99246 0.621337 0.96707 55 57 56
-1.99193 0.623655 1.42544 153 153 152
-1.99784 0.608492 0.503441 148 149 149
-1.99327 0.620614 2.29824 163 164 164
-1.99327 0.620614 2.29824 163 164 164
-1.99327 0.620614 2.29824 163 164 164
-1.99218 0.61782 2.15045 72 73 73
-1.99218 0.61782 2.15045 72 73 73
-1.99525 0.600397 0.160897 144 147 148
-1.99582 0.598134 0.631231 149 152 153
-1.99569 0.589035 0.287327 143 148 150
-1.95203 0.565315 0.130946 145 147 148
-1.99613 0.603694 2.38463 163 165 166
-1.99425 0.599648 2.10914 77 78 80
-1.99715 0.585763 0.524665 96 98 98
-1.99274 0.585698 0.734012 136 137 137
-1.99721 0.597809 2.17681 150 151 151
-1.99695 0.577838 0.220862 150 156 159
-1.99059 0.57753 0.603146 67 68 69
-1.99565 0.590614 1.91529 167 168 169
-1.99482 0.583051 1.18791 153 155 155
-1.99551 0.583127 1.18697 153 155 155
-1.99657 0.580352 1.01065 84 85 87
-1.99603 0.591804 2.32148 81 84 86
-1.99583 0.586623 2.08002 179 180 182
-1.99309 0.58091 1.96615 175 175 177
-1.99627 0.575373 1.59332 153 153 154
-1.99111 0.577157 2.03169 155 157 158
-1.99619 0.573201 1.46287 64 64 65
-1.99181 0.577232 2.03068 155 157 158
-1.99009 0.556046 0.4568 149 150 150
-1.99422 0.5673 2.04991 167 169 169
-1.99132 0.54991 0.736989 143 144 144
-1.99203 0.554547 1.43172 148 149 151
-1.99203 0.554547 1.43172 148 149 151
-1.99306 0.551447 1.1091 169 169 168
-1.99306 0.551447 1.1091 169 169 168
-1.99119 0.549459 1.023 60 60 62
-2.00006 0.552414 1.14712 98 99 100
-1.99737 0.538234 0.44665 79 79 80
-1.99389 0.55303 2.0859 182 184 184
-1.99389 0.55303 2.0859 182 184 184
-1.99277 0.550143 1.9349 61 66 69
-1.99385 0.551621 2.24414 156 158 159
-1.99614 0.542992 1.45037 154 155 157
-1.9917 0.53096 0.652643 139 142 143
-1.9909 0.513262 0.107369 124 127 127
-1.9909 0.513262 0.107369 124 127 127
-1.99103 0.529249 1.7276 108 109 108
-1.99343 0.51783 0.846725 149 151 151
-1.99044 0.508371 0.204828 149 151 152
-1.98877 0.495689 0.163224 157 160 160
-1.99116 0.494358 0.0260842 80 83 85
-1.99146 0.51994 2.26089 98 101 101
-1.98879 0.498802 0.725425 136 137 138
-1.98814 0.516107 2.38235 112 114 114
-1.9856 0.488812 0.4618 134 134 133
-1.98866 0.511128 2.30924 101 101 101
-1.99031 0.50276 1.77405 136 137 137
-1.99052 0.504574 2.2217 66 68 70
-1.98994 0.477089 0.44618 47 47 48
-1.98709 0.48542 1.17515 148 149 149
-1.98393 0.470527 0.197278 60 62 62
-1.9821 0.497908 2.41623 185 184 183
-1.98457 0.463298 0.0242696 88 91 94
-1.98498 0.484036 1.56905 135 136 136
-1.987 0.47135 0.585074 45 46 46
-1.98773 0.476666 1.00447 151 153 155
-1.98626 0.481646 1.71831 104 105 107
-1.98626 0.481646 1.71831 104 105 107
-1.98762 0.487008 2.07505 164 166 166
-1.98762 0.487008 2.07505 164 166 166
-1.98635 0.479459 1.6963 144 145 145
-1.98746 0.486876 2.29964 181 183 183
-1.98746 0.486876 2.29964 181 183 183
-1.98624 0.460157 0.565781 115 115 115
-1.98715 0.459615 0.539088 152 154 153
-1.98295 0.450259 0.285677 54 56 57
-1.98646 0.469114 1.77225 72 74 74
-1.98416 0.462013 1.44038 53 55 56
-1.9867 0.47068 2.25776 166 167 167
-1.98185 0.441962 0.476823 47 48 48
-1.98185 0.441962 0.476823 47 48 48
-1.98561 0.451871 1.10406 157 158 158
-1.99627 0.439816 0.000914911 201 201 201
-1.98217 0.433063 0.26715 113 115 116
-1.98214 0.436956 0.708497 135 136 137
-1.98207 0.455927 2.1316 149 152 153
-1.98411 0.436433 0.796778 137 138 139
-1.98232 0.424688 0.107149 70 72 74
-1.98561 0.423285 0.0272204 79 82 83
-1.98415 0.428221 0.405679 144 145 145
-1.98291 0.455496 2.36677 163 167 167
-1.98152 0.439453 1.40889 139 140 139
-1.98316 0.442585 1.64434 148 148 148
-1.98123 0.427888 0.873892 147 149 149
-1.98247 0.424078 0.779576 53 54 54
-1.98647 0.447641 2.27513 140 142 143
-1.97955 0.421792 1.00639 155 157 159
-1.98213 0.417247 0.850576 93 95 95
-1.98213 0.417247 0.850576 93 95 95
-1.97785 0.403362 0.138047 128 130 131
-1.98182 0.420304 1.64105 132 133 133
-1.97884 0.417542 1.615 131 132 131
-1.97419 0.41086 1.34969 160 161 161
-1.98324 0.39139 0.0399196 67 69 70
-1.98172 0.422335 2.33656 156 158 159
-1.98017 0.401504 1.29375 138 134 131
-1.9783 0.39507 1.01371 134 134 134
-1.97975 0.398878 1.52876 149 149 149
-1.98096 0.4086 2.10319 142 144 146
-1.98189 0.403912 1.82112 115 116 117
-1.97979 0.409156 2.25317 158 160 163
-1.97855 0.395335 1.95981 92 94 95
-1.97092 0.370497 1.28748 140 138 138
-1.96154 0.336636 0.0262501 55 57 57
-1.97357 0.3577 0.949166 139 140 140
-1.96802 0.358172 1.16532 52 53 53
-1.96957 0.357592 1.18867 153 154 154
-1.95825 0.330544 0.0466403 146 148 149
-1.97463 0.369624 2.35055 135 136 137
-1.96991 0.358301 1.95329 147 148 149
-1.97241 0.366072 2.37413 51 52 52
-1.9532 0.304651 0.026413 78 80 80
-1.96144 0.331786 1.804 131 132 132
-1.96453 0.334093 2.01882 148 149 150
-1.95012 0.290932 0.23836 67 69 69
-1.95997 0.331886 2.33268 93 94 94
-1.95097 0.286012 0.301961 145 148 149
-1.95961 0.323964 2.21341 156 158 159
-1.95185 0.300781 1.29221 157 157 157
-1.93972 0.274386 0.36027 123 126 127
-1.94436 0.277664 0.667735 154 156 157
-1.95222 0.311981 2.31888 154 156 156
-1.93878 0.261474 0.162322 131 132 133
-1.94685 0.282478 1.5046 74 74 73
-1.94685 0.282478 1.5046 74 74 73
-1.95081 0.293983 2.14846 129 132 134
-1.94267 0.253489 0.459282 134 136 136
-1.78746 0.171104 0.1432 89 91 92
-1.92674 0.225323 0.173264 54 55 55
-1.93856 0.256163 1.86505 121 122 123
-1.93903 0.256804 2.00346 151 154 156
-1.93062 0.2341 1.5111 147 148 150
-1.93569 0.252565 2.25742 157 159 160
-1.93209 0.234184 1.53587 54 53 53
-1.92746 0.249797 2.39538 83 83 84
-1.93924 0.232009 1.62429 87 86 85
-1.92537 0.222378 2.09671 91 92 94
-1.88111 0.126519 0.348209 113 116 116
-1.86445 0.109319 0.228373 64 66 66
-1.84649 0.0818816 0.250374 144 146 147
-1.8609 0.0970856 0.575332 140 142 143
-1.86704 0.105733 2.3991 82 82 82
-1.835 0.049289 1.61366 89 90 90
-0.89511 -0.703936 0.12481 87 92 91
-0.900721 -0.700758 0.213475 70 73 73
-0.901653 -0.694335 0.810397 89 96 98
-0.884731 -0.739935 0.360403 23 26 26
-0.886259 -0.730096 0.682068 41 40 40
-0.882577 -0.731647 0.99028 46 47 46
-0.874949 -0.754471 0.659091 76 79 80
-0.872835 -0.761922 0.548111 48 47 47
-0.813834 -0.878792 0.976469 53 55 54
-0.796439 -0.90391 1.00372 133 134 135
-0.807005 -0.901716 0.936347 82 85 86
-0.78389 -0.961111 0.860245 97 104 106
-1.56208 -0.516515 1.55085 135 136 137
-0.750378 -1.03326 0.19271 33 34 34
-0.750227 -1.03724 0.353064 41 40 40
-0.73783 -1.07544 0.266873 38 37 37
-0.73783 -1.07544 0.266873 38 37 37
-0.722427 -1.1055 0.272517 110 111 109
-0.736662 -1.0679 0.984447 37 37 38
-0.736662 -1.0679 0.984447 37 37 38
-0.725427 -1.0983 0.819148 99 105 112
-1.50633 -0.734775 -0.132961 200 200 200
-0.673723 -1.21328 0.386673 46 44 44
-0.653954 -1.25305 0.582372 29 31 31
-0.641201 -1.27602 0.337302 42 42 42
-0.646877 -1.27744 0.528168 106 107 110
-0.633313 -1.31322 0.182884 103 114 120
-0.650034 -1.27016 0.843969 106 107 110
-0.637326 -1.30114 0.750456 109 110 111
-1.32142 -1.0364 2.38102 186 186 186
-1.90507 0.983011 1.80323 37 37 37
-1.90959 0.978645 1.48305 159 159 159
-1.9386 0.91368 2.37721 175 176 177
-1.9138 0.966137 0.388262 152 153 154
-1.93971 0.9088 1.62925 168 169 169
-1.93536 0.92921 0.746373 150 151 152
-1.95226 0.879107 2.10987 170 173 173
-1.95283 0.868315 2.35466 90 93 95
-1.94668 0.876031 2.05102 182 183 184
-1.9518 0.86289 1.86987 178 180 180
-1.93853 0.907928 0.285809 62 62 62
-1.93853 0.907928 0.285809 62 62 62
-1.94716 0.880458 0.989395 144 145 146
-1.95622 0.836444 2.03767 170 172 173
-1.96033 0.825645 2.1603 160 162 162
-1.95523 0.896972 0.0163138 179 179 179
-1.95723 0.833954 1.88498 50 50 50
-1.94751 0.893384 0.0541634 89 93 99
-1.96952 0.811438 2.36462 160 162 163
-1.94755 0.883509 0.0340421 42 46 51
-1.96101 0.82146 1.8652 144 147 147
-1.9415 0.865223 0.0501612 121 123 124
-1.97561 0.785184 2.29617 163 164 163
-1.96587 0.826071 0.865787 144 146 145
-1.96818 0.810938 1.17336 146 146 146
-1.96957 0.811428 1.07515 163 164 164
-1.9799 0.777716 1.78401 156 157 157
-1.96081 0.830461 0.105801 148 151 151
-1.9818 0.761534 2.28133 55 55 55
-1.98288 0.73829 2.26234 158 158 158
-1.98147 0.736975 2.2835 166 166 165
-1.98199 0.743434 2.02694 61 60 59
-1.98479 0.73824 2.00232 172 175 174
-1.97072 0.779493 0.456219 129 132 132
-1.98487 0.721884 2.09966 175 178 180
-1.98604 0.718297 2.16734 175 177 177
-1.98604 0.718297 2.16734 175 177 177
-1.97765 0.743692 1.29632 149 149 148
-1.98278 0.73477 1.54544 150 151 151
-1.986 0.707985 2.21319 167 171 173
-1.98608 0.767298 0.113785 142 143 144
-1.98794 0.715956 1.85977 170 173 175
-1.98615 0.70969 1.94524 142 145 145
-1.98744 0.698006 2.19671 65 68 70
-1.98439 0.716548 1.52749 78 78 78
-1.63484 0.788545 -0.108768 131 134 134
-1.98748 0.711649 1.49104 137 136 135
-1.98331 0.694892 2.04182 67 69 71
-1.98734 0.719694 1.02414 67 68 67
-1.9787 0.732592 0.540584 51 51 52
-1.98739 0.682522 2.22925 172 174 174
-1.98287 0.743023 0.025152 59 61 61
-1.9865 0.695549 1.69577 166 166 167
-1.98743 0.679576 2.0639 98 101 103
-1.98698 0.688809 1.6364 165 168 168
-1.98252 0.71986 0.448989 152 153 153
-1.98662 0.676091 2.03505 158 160 163
-1.9881 0.688187 1.40961 111 111 111
-1.98382 0.721881 0.168161 59 60 60
-1.98692 0.653812 2.37192 99 100 101
-1.99048 0.662975 1.87454 162 163 163
-1.99889 0.654469 2.08666 114 117 119
-1.98915 0.667484 1.47046 148 147 146
-1.98768 0.685769 0.653703 70 71 72
-1.98586 0.691929 0.388301 136 138 139
-1.99021 0.653949 1.6953 157 158 158
-1.99021 0.653949 1.6953 157 158 158
-1.9876 0.690493 0.237683 40 42 45
-1.98893 0.664912 1.05138 148 148 149
-1.9737 0.625994 2.41296 195 195 194
-1.99475 0.620464 2.29723 158 160 160
-1.99475 0.620464 2.29723 158 160 160
-1.99475 0.620464 2.29723 158 160 160
-1.99277 0.674596 0.121118 131 131 131
-1.99277 0.674596 0.121118 131 131 131
-2.18823 0.589266 2.44944 160 163 164
-1.99439 0.625685 1.38416 136 134 133
-1.9918 0.598276 2.17371 156 157 157
-1.99539 0.599626 2.10912 61 62 64
-1.9935 0.619865 1.26526 139 140 139
-1.99494 0.59192 2.3216 94 97 99
-1.99984 0.600494 1.9341 104 105 112
-1.99043 0.638395 0.301083 137 140 141
-1.99627 0.638318 0.228037 138 141 142
-1.99317 0.598973 1.62698 152 152 153
-1.99317 0.598973 1.62698 152 152 153
-1.99316 0.631907 0.17076 66 68 70
-1.99407 0.576761 2.03613 148 150 151
-1.98887 0.609058 0.497427 151 153 153
-1.99721 0.597016 0.896283 142 143 143
-1.9974 0.597975 0.630069 150 153 154
-1.99743 0.58 1.42141 141 141 142
-1.99793 0.575263 1.59382 154 154 154
-1.99778 0.597756 0.555906 152 152 153
-1.99778 0.597756 0.555906 152 152 153
-1.99486 0.583107 1.18656 153 154 154
-1.99542 0.573301 1.46204 73 72 73
-1.9887 0.600983 0.157663 149 152 153
-1.99614 0.585293 0.737032 141 142 142
-1.99546 0.551513 2.24446 169 171 172
-1.99442 0.552995 2.0847 174 176 176
-1.99568 0.589129 0.285192 128 131 134
-1.99336 0.57729 0.606075 60 61 62
-1.99038 0.540443 2.14421 74 76 79
-1.99734 0.577781 0.219698 151 158 161
-1.99443 0.552594 1.33981 143 143 143
-1.99442 0.543463 1.61724 59 59 59
-1.99577 0.552878 1.14281 100 101 101
-1.98969 0.551718 1.10875 161 161 161
-1.99182 0.542867 1.50909 45 46 45
-1.99211 0.54941 1.02313 56 57 58
-1.99626 0.519609 2.26327 100 103 102
-1.9906 0.515996 2.38171 134 134 134
-1.99383 0.555725 0.459703 139 140 140
-1.99104 0.55658 0.190847 145 147 149
-1.99708 0.551851 0.351016 128 131 132
-1.99304 0.50442 2.22172 57 60 61
-1.98999 0.541952 0.368373 71 73 74
-1.99927 0.543316 0.219929 107 111 113
-1.98564 0.503753 2.1983 139 142 143
-1.99211 0.538652 0.443 67 68 68
-1.98848 0.49741 2.42013 182 181 180
-1.98855 0.509343 1.7011 153 154 155
-1.99104 0.502677 1.77409 140 141 141
-1.99038 0.493834 2.1649 163 165 166
-1.98949 0.518166 0.842887 144 146 146
-1.98834 0.486816 2.29981 188 190 190
-1.98834 0.486816 2.29981 188 190 190
-1.98861 0.486952 2.07548 166 168 168
-1.99157 0.499185 1.41284 132 133 133
-1.99066 0.513342 0.107113 125 127 128
-1.99066 0.513342 0.107113 125 127 128
-1.99013 0.483662 1.57214 137 138 139
-1.98779 0.47063 2.25724 165 166 167
-1.98779 0.47063 2.25724 165 166 167
-1.99401 0.508198 0.205599 148 151 152
-1.99249 0.50404 0.389602 146 148 149
-1.98647 0.479465 1.6961 144 145 146
-1.98867 0.485292 1.17572 154 155 155
-1.98881 0.49197 0.53651 159 160 160
-1.98717 0.488729 0.463013 133 134 133
-1.98636 0.453153 2.30174 75 77 78
-1.99029 0.476534 1.00548 149 151 153
-1.99261 0.494297 0.0268559 82 85 87
-1.98619 0.469372 1.26744 138 139 138
-1.98687 0.475344 0.739528 125 126 126
-1.98316 0.462102 1.43984 58 61 61
-1.98697 0.471364 0.584718 44 45 44
-1.98697 0.471364 0.584718 44 45 44
-1.98432 0.475511 0.071451 58 60 60
-1.98394 0.452581 1.13713 160 160 161
-1.98567 0.451922 1.1031 161 163 163
-1.98335 0.442614 1.64419 150 151 151
-1.98335 0.442614 1.64419 150 151 151
-1.98525 0.464378 0.349438 142 145 146
-1.98525 0.464378 0.349438 142 145 146
-1.99176 0.459344 0.542201 150 151 151
-1.98702 0.463154 0.0244107 63 66 68
-1.98209 0.422345 2.3363 149 151 153
-1.98381 0.433422 1.52524 139 139 139
-1.98528 0.450139 0.286865 47 48 49
-1.9856 0.441721 0.479204 56 58 58
-1.97741 0.418934 1.77775 75 76 76
-1.97741 0.418934 1.77775 75 76 76
-1.97741 0.418934 1.77775 75 76 76
-1.98111 0.420235 1.64148 124 125 126
-1.98169 0.409057 2.25288 156 158 160
-1.97888 0.408739 2.10219 149 152 154
-1.98181 0.427891 0.873366 150 152 152
-1.99952 0.439896 0.00384551 201 201 201
-1.98351 0.421654 1.00798 154 155 157
-1.98351 0.421654 1.00798 154 155 157
-1.98728 0.43276 0.269862 119 121 122
-1.98189 0.428353 0.403709 143 144 145
-1.97527 0.410911 1.35034 173 174 175
-1.9799 0.417489 0.848484 66 67 67
-1.9799 0.417489 0.848484 66 67 67
-1.98288 0.428044 0.0857633 119 122 124
-1.96725 0.393658 2.16845 147 149 150
-1.97737 0.395406 1.95926 106 108 109
-1.9833 0.423367 0.025343 76 79 80
-1.97995 0.398871 1.52884 153 154 153
-5.0608 -0.48814 2.64975 73 74 75
-1.97245 0.369667 2.3504 144 145 146
-1.97043 0.366149 2.37318 61 61 62
-1.98 0.386494 0.922578 138 141 142
-1.97404 0.384046 0.731105 135 137 138
-1.98482 0.391339 0.0403308 70 72 74
-1.97062 0.358233 1.95378 139 140 141
-1.97438 0.379116 0.107827 94 96 97
-1.96785 0.351271 1.87615 54 55 56
-1.96749 0.355667 1.53716 148 147 144
-1.96557 0.353971 1.57657 83 80 73
-1.97107 0.358011 1.16705 49 50 50
-1.96875 0.357631 1.18741 155 156 156
-1.96759 0.360492 0.715395 143 144 145
-1.97069 0.357949 0.429508 153 156 156
-1.96097 0.33186 2.33259 76 77 78
-1.96093 0.334281 2.01693 150 151 152
-1.96751 0.345744 1.0424 119 120 118
-1.96365 0.350432 0.543005 60 62 62
-1.96528 0.346834 0.746862 55 56 56
-1.96185 0.331783 1.80351 130 131 131
-1.96263 0.332262 1.57149 135 135 133
-1.95836 0.324034 2.21293 161 164 165
-1.96333 0.345331 0.268957 148 151 152
-1.96286 0.336588 0.0263868 58 60 61
-1.95118 0.305787 2.27609 70 73 73
-1.9565 0.309781 1.70313 65 65 65
-1.95313 0.308847 1.20214 90 92 92
-1.94222 0.29396 2.38724 126 127 127
-1.95671 0.29392 2.15143 134 137 139
-1.95457 0.305716 0.953985 75 76 76
-1.95457 0.305716 0.953985 75 76 76
-1.95211 0.30079 1.29193 166 166 166
-1.94818 0.291366 1.31851 88 87 87
-1.94728 0.293466 1.04891 54 54 54
-1.94728 0.293466 1.04891 54 54 54
-1.95315 0.304698 0.0250149 83 85 85
-1.94538 0.282741 1.50207 92 92 91
-1.94538 0.282741 1.50207 92 92 91
-1.94453 0.275358 2.03639 152 151 150
-1.94386 0.274185 2.03599 152 151 150
-1.94791 0.283445 1.07918 132 132 132
-1.93736 0.292303 0.28748 134 137 139
-1.94982 0.290952 0.236209 73 75 74
-1.94832 0.288863 0.168655 62 63 63
-1.94699 0.286371 0.29714 143 146 147
-1.94121 0.267776 1.75096 70 72 73
-1.94681 0.276948 0.799646 144 148 149
-1.94221 0.258522 1.90918 133 135 135
-1.93861 0.256845 2.00301 153 156 157
-1.94103 0.252435 2.26034 164 166 167
-1.94149 0.261461 1.35509 126 124 124
-1.93778 0.25624 1.86396 124 126 126
-1.93501 0.248875 2.13762 156 159 160
-1.93312 0.248238 1.66016 146 147 146
-1.9335 0.248013 1.66042 146 147 146
-1.93348 0.239423 2.20889 141 143 145
-1.92899 0.23752 2.3392 146 149 149
-1.92899 0.23752 2.3392 146 149 149
-1.93307 0.254004 0.452274 137 140 140
-1.92701 0.232762 2.18875 105 107 111
-1.93098 0.230333 2.32251 86 89 92
-1.93681 0.248428 0.0874046 130 133 134
-1.9334 0.234138 1.53677 59 58 57
-1.93082 0.234119 1.51041 148 149 150
-1.93625 0.232056 1.62303 83 82 81
-1.93378 0.241536 0.566982 153 156 156
-1.9272 0.234953 1.29935 74 74 73
-1.93095 0.226429 2.02052 150 154 157
-1.92837 0.222278 2.09856 85 88 88
-1.93178 0.226886 1.46304 139 138 137
-1.93748 0.237276 0.0302276 54 55 56
-1.93275 0.236116 0.0503332 128 131 132
-1.9266 0.216274 2.04273 67 70 72
